-8423.57700000000	7292.70000000000	65
-6821.84300000000	7292.70000000000	65
-5210.46000000000	7292.70000000000	79
-3599.07700000000	7292.70000000000	113
-1987.69400000000	7292.70000000000	49
-385.960000000000	7292.70000000000	25
1225.42300000000	7292.70000000000	33
2827.15700000000	7292.70000000000	61
4438.54000000000	7292.70000000000	53
6049.92300000000	7292.70000000000	77
7661.30600000000	7292.70000000000	103
-8423.57700000000	5860.80000000000	113
-6821.84300000000	5860.80000000000	111
-5210.46000000000	5860.80000000000	97
-3599.07700000000	5860.80000000000	137
-1987.69400000000	5860.80000000000	103
-385.960000000000	5860.80000000000	43
1225.42300000000	5860.80000000000	61
2827.15700000000	5860.80000000000	95
4438.54000000000	5860.80000000000	97
6049.92300000000	5860.80000000000	83
7661.30600000000	5860.80000000000	79
-8423.57700000000	4428.90000000000	139
-6821.84300000000	4428.90000000000	129
-5210.46000000000	4428.90000000000	113
-3599.07700000000	4428.90000000000	123
-1987.69400000000	4428.90000000000	125
-385.960000000000	4428.90000000000	119
1225.42300000000	4428.90000000000	95
2827.15700000000	4428.90000000000	133
4438.54000000000	4428.90000000000	143
6049.92300000000	4428.90000000000	121
7661.30600000000	4428.90000000000	107
-8423.57700000000	3008.10000000000	127
-6821.84300000000	3008.10000000000	155
-5210.46000000000	3008.10000000000	131
-3599.07700000000	3008.10000000000	115
-1987.69400000000	3008.10000000000	137
-385.960000000000	3008.10000000000	145
1225.42300000000	3008.10000000000	141
2827.15700000000	3008.10000000000	127
4438.54000000000	3008.10000000000	155
6049.92300000000	3008.10000000000	145
7661.30600000000	3008.10000000000	129
-8423.57700000000	1576.20000000000	147
-6821.84300000000	1576.20000000000	159
-5210.46000000000	1576.20000000000	129
-3599.07700000000	1576.20000000000	127
-1987.69400000000	1576.20000000000	117
-385.960000000000	1576.20000000000	151
1225.42300000000	1576.20000000000	155
2827.15700000000	1576.20000000000	119
4438.54000000000	1576.20000000000	147
6049.92300000000	1576.20000000000	161
7661.30600000000	1576.20000000000	151
-8423.57700000000	144.300000000000	179
-6821.84300000000	144.300000000000	173
-5210.46000000000	144.300000000000	139
-3599.07700000000	144.300000000000	141
-1987.69400000000	144.300000000000	123
-385.960000000000	144.300000000000	161
1225.42300000000	144.300000000000	153
2827.15700000000	144.300000000000	119
4438.54000000000	144.300000000000	129
6049.92300000000	144.300000000000	153
7661.30600000000	144.300000000000	161
-8423.57700000000	-1287.60000000000	181
-6821.84300000000	-1287.60000000000	165
-5210.46000000000	-1287.60000000000	159
-3599.07700000000	-1287.60000000000	167
-1987.69400000000	-1287.60000000000	145
-385.960000000000	-1287.60000000000	153
1225.42300000000	-1287.60000000000	157
2827.15700000000	-1287.60000000000	151
4438.54000000000	-1287.60000000000	143
6049.92300000000	-1287.60000000000	159
7661.30600000000	-1287.60000000000	169
-8423.57700000000	-2719.50000000000	173
-6821.84300000000	-2719.50000000000	163
-5210.46000000000	-2719.50000000000	167
-3599.07700000000	-2719.50000000000	169
-1987.69400000000	-2719.50000000000	159
-385.960000000000	-2719.50000000000	153
1225.42300000000	-2719.50000000000	169
2827.15700000000	-2719.50000000000	161
4438.54000000000	-2719.50000000000	161
6049.92300000000	-2719.50000000000	141
7661.30600000000	-2719.50000000000	161
-8423.57700000000	-4151.40000000000	155
-6821.84300000000	-4151.40000000000	161
-5210.46000000000	-4151.40000000000	175
-3599.07700000000	-4151.40000000000	179
-1987.69400000000	-4151.40000000000	175
-385.960000000000	-4151.40000000000	169
1225.42300000000	-4151.40000000000	177
2827.15700000000	-4151.40000000000	173
4438.54000000000	-4151.40000000000	167
6049.92300000000	-4151.40000000000	169
7661.30600000000	-4151.40000000000	169
-8423.57700000000	-5572.20000000000	135
-6821.84300000000	-5572.20000000000	159
-5210.46000000000	-5572.20000000000	155
-3599.07700000000	-5572.20000000000	157
-1987.69400000000	-5572.20000000000	173
-385.960000000000	-5572.20000000000	183
1225.42300000000	-5572.20000000000	181
2827.15700000000	-5572.20000000000	183
4438.54000000000	-5572.20000000000	187
6049.92300000000	-5572.20000000000	187
7661.30600000000	-5572.20000000000	181
-8423.57700000000	-7004.10000000000	107
-6821.84300000000	-7004.10000000000	99
-5210.46000000000	-7004.10000000000	97
-3599.07700000000	-7004.10000000000	115
-1987.69400000000	-7004.10000000000	117
-385.960000000000	-7004.10000000000	137
1225.42300000000	-7004.10000000000	165
2827.15700000000	-7004.10000000000	175
4438.54000000000	-7004.10000000000	187
6049.92300000000	-7004.10000000000	193
7661.30600000000	-7004.10000000000	193
-8423.57700000000	-8436	103
-6821.84300000000	-8436	141
-5210.46000000000	-8436	157
-3599.07700000000	-8436	165
-1987.69400000000	-8436	161
-385.960000000000	-8436	157
1225.42300000000	-8436	157
2827.15700000000	-8436	189
4438.54000000000	-8436	193
6049.92300000000	-8436	199
7661.30600000000	-8436	199